0.108269 0.454855 0.160109
0.130717 0.907461 0.091017
0.130272 0.896919 0.092760
0.135299 0.506023 0.074735
0.149424 0.530390 0.052273
0.129938 0.492896 0.086167
0.053740 0.667502 0.084268
0.131189 0.932145 0.092411
0.118305 0.391921 0.186587
0.074059 0.649118 0.118184
0.121094 0.241576 0.183608
0.118982 0.167225 0.187924
0.091302 0.509429 0.147810
0.152376 0.679733 0.156831
0.112903 0.119776 0.186374
0.043239 0.569839 0.180009
0.152943 0.548983 0.044274
0.034899 0.765620 0.064459
0.100923 0.796370 0.141668
0.028288 0.584398 0.050146
0.033155 0.772801 0.061888
0.114879 0.611913 0.135161
0.101532 0.703799 0.159049
0.032085 0.572357 0.050822
0.081271 0.574307 0.135586
0.087265 0.512603 0.199054
0.121970 0.326335 0.187708
0.127523 0.495825 0.080681
0.118174 0.239245 0.189507
0.140209 0.519940 0.060809
0.085901 0.533672 0.143066
0.179651 0.675899 0.009532
0.108078 0.811365 0.102807
0.082808 0.580919 0.131996
0.071869 0.550520 0.212288
0.166954 0.697883 0.160104
0.051900 0.673485 0.082855
0.128554 0.427114 0.207747
0.134346 0.959505 0.090702
0.016859 0.539345 0.122008
0.118953 0.353433 0.184952
0.093080 0.767491 0.110271
0.040085 0.732116 0.071794
0.106171 0.465343 0.198769
0.150918 0.533670 0.049896
0.115367 0.093574 0.186179
0.186140 0.593297 0.054680
0.073219 0.670610 0.121085
0.116734 0.224917 0.187030
0.173039 0.707748 0.166273
0.113428 0.088231 0.186333
0.115869 0.107962 0.179722
0.096993 0.776132 0.131402
0.157705 0.535998 0.042232
0.120808 0.304447 0.183547
0.118928 0.156686 0.187153
0.111937 0.009355 0.180324
0.177708 0.651227 0.013192
0.127310 0.316518 0.184418
0.072593 0.530004 0.193821
0.096183 0.474291 0.193111
0.063805 0.516978 0.075507
0.075302 0.534847 0.204091
0.157081 0.470703 0.196629
0.117460 0.473106 0.131118
0.120589 0.384759 0.186828
0.138631 0.984794 0.093804
0.136418 0.969058 0.093366
0.125969 0.408578 0.201827
0.074185 0.678794 0.120397
0.127899 0.491339 0.087502
0.084019 0.570962 0.134743
0.129673 0.428790 0.206451
0.056853 0.717975 0.097772
0.191961 0.589742 0.197505
0.122571 0.316286 0.182115
0.145722 0.633473 0.022283
0.191021 0.581265 0.197242
0.110190 0.082472 0.184102
0.132057 0.496692 0.080732
0.121835 0.376885 0.178484
0.187970 0.725234 0.174244
0.155828 0.555344 0.043228
0.075399 0.664609 0.120205
0.079006 0.520845 0.083884
0.127544 0.327199 0.185136
0.114763 0.428478 0.173894
0.121669 0.342554 0.180390
0.122944 0.826111 0.084066
0.124841 0.359595 0.183181
0.050710 0.531470 0.065295
0.118780 0.663772 0.151363
0.035873 0.567424 0.052524
0.187398 0.557352 0.005077
0.143577 0.635166 0.112479
0.100451 0.487476 0.201762
0.095634 0.771897 0.107671
0.037480 0.510527 0.147637
0.130617 0.921558 0.092728
0.183317 0.716786 0.171527
0.184187 0.579999 0.055199
0.114344 0.037123 0.186795
0.134485 0.949237 0.090845
0.018355 0.533805 0.126597
0.116896 0.060913 0.182597
0.121474 0.183375 0.187065
0.117191 0.235391 0.186299
0.053720 0.557360 0.186280
0.067217 0.727515 0.075062
0.115402 0.031384 0.180335
0.116891 0.063989 0.183203
0.173712 0.505961 0.195184
0.070855 0.732131 0.073944
0.081350 0.496145 0.096973
0.067404 0.486936 0.174349
0.093491 0.487688 0.152124
0.112799 0.421428 0.177096
0.125858 0.826467 0.083439
0.118677 0.670493 0.151748
0.087855 0.508932 0.145877
0.120531 0.270289 0.184253
0.105392 0.695253 0.156082
0.037158 0.562366 0.053218
0.025307 0.519662 0.133546
0.137900 0.978840 0.093555
0.056816 0.714632 0.100968
0.106186 0.698458 0.156556
0.077004 0.622040 0.123184
0.075585 0.484738 0.179627
0.198140 0.733785 0.181460
0.134282 0.962962 0.091132
0.156092 0.615682 0.025379
0.114139 0.477481 0.130072
0.134005 0.500774 0.077659
0.085569 0.556100 0.134503
0.152801 0.847808 0.046165
0.115103 0.152508 0.187571
0.147073 0.639618 0.108718
0.074150 0.653213 0.117991
0.118355 0.398640 0.175237
0.171146 0.613766 0.021538
0.189384 0.577524 0.197150
0.115843 0.474579 0.125658
0.190779 0.626990 0.049661
0.100726 0.795527 0.141531
0.042797 0.725751 0.071302
0.077095 0.597897 0.130399
0.109167 0.445491 0.165543
0.174700 0.707154 0.166021
0.044016 0.548395 0.058108
0.114382 0.168761 0.186621
0.068205 0.556345 0.212758
0.157172 0.558429 0.054740
0.169486 0.503082 0.195819
0.075576 0.636222 0.122219
0.106217 0.472338 0.200758
0.081047 0.590220 0.131234
0.123854 0.240767 0.189234
0.114178 0.470378 0.144440
0.141193 0.632662 0.112595
0.167640 0.541965 0.069222
0.207367 0.743851 0.185546
0.074449 0.677104 0.116825
0.115791 0.394410 0.182101
0.189323 0.726570 0.174687
0.129370 0.496208 0.078160
0.123834 0.330752 0.188128
0.118828 0.365458 0.185041
0.110414 0.098409 0.182831
0.124001 0.401541 0.191845
0.120643 0.389232 0.177424
0.125830 0.283743 0.185518
0.179067 0.673018 0.008584
0.128386 0.872964 0.093624
0.026797 0.810931 0.045558
0.124452 0.863439 0.095571
0.122859 0.486991 0.092417
0.079065 0.522165 0.081184
0.082887 0.577873 0.130837
0.075367 0.635361 0.122604
0.122693 0.337394 0.180677
0.147453 0.638554 0.108937
0.076478 0.622791 0.124378
0.155995 0.564285 0.051302
0.085930 0.513185 0.201113
0.091379 0.760802 0.117711
0.132315 0.427428 0.205817
0.141094 0.664448 0.152802
0.149073 0.672582 0.153108
0.099095 0.488069 0.151409
0.113078 0.037040 0.186973
0.187107 0.608499 0.050962
0.157872 0.609242 0.023983
0.050675 0.739204 0.093707
0.046031 0.569949 0.179128
0.107233 0.601834 0.140735
0.128265 0.422293 0.204299
0.117782 0.620247 0.143667
0.151136 0.678774 0.153803
0.088576 0.753845 0.110691
0.087073 0.543970 0.136408
0.152375 0.467631 0.198552
0.116668 0.470954 0.139303
0.107206 0.449770 0.164378
0.128306 0.623142 0.125600
0.113994 0.171890 0.184674
0.124676 0.247277 0.187491
0.087121 0.573531 0.138701
0.118582 0.474693 0.129149
0.110698 0.419727 0.176091
0.173410 0.558390 0.063484
0.108768 0.466433 0.197520
0.122968 0.825037 0.083385
0.082303 0.725393 0.113413
0.116339 0.379814 0.180213
0.131679 0.433316 0.204233
0.129361 0.919612 0.091140
0.167779 0.544495 0.026168
0.116154 0.031551 0.181011
0.166071 0.533694 0.071077
0.083497 0.540958 0.137818
0.185098 0.533595 0.193883
0.116242 0.418042 0.176694
0.092885 0.485968 0.109143
0.129079 0.411460 0.200072
0.122182 0.480165 0.105259
0.116466 0.001606 0.183686
0.071449 0.687565 0.117110
0.146774 0.640356 0.107032
0.104104 0.472369 0.157997
0.118799 0.253022 0.190114
0.116961 0.380256 0.181819
0.117680 0.209523 0.183146
0.081579 0.561490 0.135895
0.128325 0.622109 0.123549
0.084332 0.535396 0.141586
0.089356 0.509343 0.142372
0.117755 0.098290 0.183375
0.116362 0.419178 0.172563
0.187552 0.595704 0.053879
0.116348 0.818770 0.093990
0.115869 0.068023 0.185012
0.099495 0.789509 0.139553
0.115569 0.002012 0.181721
0.133850 0.502884 0.072470
0.047926 0.695590 0.076424
0.178205 0.552451 0.015486
0.103170 0.482546 0.120558
0.115805 0.419868 0.176437
0.116643 0.047358 0.184393
0.073603 0.616814 0.122648
0.053174 0.674826 0.080109
0.120729 0.234479 0.183370
0.187798 0.606966 0.050329
0.125762 0.485452 0.095358
0.110398 0.433855 0.174450
0.172153 0.622347 0.019334
0.118610 0.390685 0.187387
0.095170 0.777605 0.108722
0.139339 0.632705 0.113125
0.149398 0.639646 0.105775
0.130973 0.496535 0.085877
0.116135 0.839123 0.098088
0.098427 0.586234 0.138466
0.087562 0.753944 0.116095
0.107549 0.446347 0.163362
0.076239 0.528935 0.196279
0.134171 0.628344 0.120282
0.128590 0.910479 0.091817
0.122596 0.400900 0.192247
0.113974 0.170706 0.185181
0.111255 0.117960 0.184225
0.194380 0.728989 0.177671
0.188627 0.572998 0.195110
0.072884 0.637675 0.123203
0.126544 0.326521 0.187413
0.120596 0.848914 0.094846
0.111695 0.818091 0.099267
0.112457 0.822152 0.101760
0.111483 0.000694 0.186431
0.121296 0.334813 0.187134
0.146697 0.668999 0.153256
0.153547 0.683011 0.155127
0.089633 0.530492 0.142986
0.075082 0.662796 0.120903
0.101718 0.825675 0.145245
0.048908 0.566528 0.181796
0.202587 0.740273 0.182594
0.039727 0.554991 0.055073
0.190517 0.632199 0.046861
0.108812 0.457071 0.164235
0.087390 0.549304 0.138281
0.084061 0.559899 0.133596
0.078348 0.722404 0.115710
0.114647 0.009778 0.187441
0.083528 0.552418 0.139642
0.113585 0.414053 0.178589
0.120316 0.347734 0.186286
0.123314 0.366239 0.184581
0.036586 0.510236 0.146333
0.089329 0.571318 0.134934
0.066685 0.637065 0.099787
0.113098 0.458000 0.201077
0.045330 0.701276 0.076449
0.078472 0.535645 0.078321
0.111194 0.418337 0.176701
0.121690 0.392450 0.179758
0.093300 0.763514 0.122185
0.141588 0.840007 0.063036
0.169420 0.591288 0.026238
0.106793 0.692102 0.156718
0.112265 0.424303 0.169783
0.153959 0.515481 0.077373
0.129352 0.903815 0.093189
0.178533 0.683522 0.009676
0.154854 0.545031 0.046794
0.176330 0.642090 0.014003
0.126520 0.296908 0.185290
0.025512 0.821567 0.040789
0.087588 0.527622 0.144483
0.123564 0.232940 0.184837
0.077869 0.614154 0.125917
0.121879 0.187461 0.183849
0.187547 0.605152 0.052848
0.051458 0.532879 0.063185
0.115371 0.467187 0.143498
0.142631 0.445725 0.200786
0.097237 0.773329 0.132396
0.112505 0.607885 0.139937
0.102191 0.481956 0.114896
0.117777 0.665813 0.151507
0.089091 0.535144 0.138714
0.105197 0.449579 0.165744
0.110020 0.005620 0.186176
0.069153 0.726754 0.074324
0.104320 0.481917 0.199892
0.119014 0.381503 0.185360
0.114873 0.068830 0.185757
0.119945 0.448485 0.202817
0.121074 0.478938 0.109292
0.119496 0.293074 0.187128
0.140862 0.641776 0.018895
0.113713 0.167623 0.184773
0.166459 0.701502 0.161427
0.077911 0.529738 0.201420
0.111078 0.114681 0.183842
0.100248 0.481966 0.113833
0.071442 0.629493 0.121241
0.149798 0.510635 0.079582
0.132337 0.494052 0.084971
0.111603 0.813290 0.100918
0.172960 0.631124 0.018370
0.073523 0.621826 0.120699
0.120353 0.234081 0.183394
0.118484 0.624198 0.146335
0.105729 0.698410 0.156273
0.142318 0.519021 0.059723
0.120992 0.332515 0.182094
0.163277 0.567625 0.035890
0.084215 0.733773 0.112867
0.177859 0.673697 0.008212
0.186690 0.540101 0.193979
0.083608 0.742296 0.113966
0.117339 0.816700 0.093890
0.060288 0.523182 0.072067
0.178709 0.696575 0.007504
0.126950 0.640813 0.144900
0.075142 0.655269 0.121397
0.130016 0.423161 0.206524
0.147463 0.674102 0.155020
0.111328 0.108986 0.181231
0.165602 0.588423 0.028185
0.103108 0.476194 0.158210
0.113863 0.148837 0.181222
0.174235 0.616852 0.021075
0.161588 0.478644 0.197409
0.164750 0.596087 0.028818
0.084128 0.566812 0.137679
0.129127 0.496112 0.078341
0.185865 0.587744 0.055532
0.125658 0.397492 0.190744
0.172484 0.507630 0.196842
0.100196 0.470440 0.156622
0.093860 0.766457 0.126821
0.130507 0.494505 0.079252
0.117176 0.209778 0.188675
0.125040 0.863015 0.092952
0.108128 0.602265 0.140766
0.025546 0.519470 0.134872
0.081334 0.734564 0.111614
0.106813 0.437973 0.170547
0.077594 0.530591 0.079169
0.115413 0.832238 0.100267
0.114598 0.403000 0.174496
0.088505 0.488484 0.103828
0.123668 0.394856 0.190492
0.126871 0.332828 0.185665
0.116304 0.819187 0.093416
0.075177 0.664033 0.118143
0.121251 0.386754 0.181426
0.125959 0.871712 0.094061
0.141141 0.448386 0.201261
0.128195 0.428422 0.207092
0.182947 0.723921 0.003845
0.116195 0.212892 0.186236
0.117318 0.121058 0.185982
0.124180 0.361475 0.184365
0.157737 0.555764 0.039780
0.097644 0.474056 0.191254
0.125555 0.278730 0.185577
0.188040 0.722950 0.175490
0.172129 0.600505 0.026453
0.158875 0.609285 0.026611
0.108916 0.478460 0.127960
0.115925 0.421247 0.175672
0.148372 0.528246 0.053236
0.074541 0.691950 0.119155
0.112038 0.462875 0.202746
0.162520 0.528367 0.070452
0.105966 0.464899 0.160137
0.116151 0.391924 0.176969
0.111795 0.106372 0.180420
0.119628 0.174729 0.181732
0.078863 0.481439 0.181375
0.084385 0.751212 0.072137
0.060725 0.491372 0.170797
0.070223 0.533359 0.194615
0.080362 0.583052 0.128616
0.070252 0.631410 0.112180
0.046190 0.765291 0.087721
0.178879 0.520121 0.196415
0.098594 0.486608 0.201109
0.023881 0.828415 0.039988
0.072715 0.503797 0.088430
0.179626 0.675079 0.009509
0.079621 0.540673 0.076611
0.138909 0.440315 0.204644
0.039712 0.553234 0.056001
0.016821 0.539131 0.123357
0.110340 0.086955 0.181178
0.117964 0.164064 0.188085
0.176645 0.641688 0.015895
0.125522 0.280615 0.185250
0.123118 0.205722 0.185151
0.070098 0.635603 0.110480
0.114880 0.033061 0.186732
0.115075 0.070575 0.185644
0.102452 0.794710 0.106113
0.088126 0.515195 0.146365
0.064162 0.636186 0.099526
0.103184 0.467344 0.196521
0.094411 0.485599 0.155006
0.116308 0.474775 0.130936
0.111861 0.012172 0.180276
0.104835 0.458063 0.167773
0.076239 0.498575 0.089832
0.165533 0.587011 0.028783
0.115355 0.034417 0.180242
0.072419 0.627036 0.121249
0.188720 0.577254 0.196504
0.093189 0.494742 0.152821
0.115540 0.193422 0.184552
0.073145 0.533888 0.194165
0.091760 0.762329 0.121694
0.031391 0.786386 0.058141
0.156898 0.475836 0.196912
0.026824 0.521344 0.134374
0.111793 0.117550 0.181143
0.069160 0.634358 0.114731
0.120913 0.190172 0.182531
0.182801 0.577260 0.055744
0.185874 0.591676 0.054910
0.121580 0.269032 0.191042
0.170278 0.546887 0.026037
0.116327 0.416569 0.177197
0.101197 0.810041 0.143496
0.118124 0.819277 0.093077
0.155292 0.617566 0.022714
0.113529 0.015485 0.187537
0.124998 0.329187 0.181395
0.095123 0.767199 0.124955
0.096563 0.769529 0.128027
0.117152 0.209534 0.183546
0.142628 0.523525 0.057140
0.118444 0.363787 0.179917
0.051918 0.682944 0.081104
0.127820 0.898111 0.091874
0.162287 0.526643 0.072791
0.131677 0.498604 0.075861
0.129707 0.899224 0.090844
0.158123 0.536161 0.040556
0.120797 0.164811 0.183814
0.128291 0.885223 0.091104
0.081096 0.736849 0.112919
0.118811 0.363097 0.179650
0.076729 0.511224 0.086692
0.104961 0.469186 0.197683
0.068143 0.540911 0.191662
0.116876 0.178798 0.188508
0.120086 0.279762 0.189783
0.161730 0.542248 0.063415
0.171700 0.592176 0.027623
0.188811 0.614597 0.051430
0.163029 0.593356 0.028436
0.087851 0.508918 0.144224
0.118207 0.198923 0.182252
0.137916 0.441426 0.204924
0.116954 0.015801 0.184331
0.102202 0.481580 0.115164
0.146636 0.525780 0.198724
0.117169 0.368864 0.181306
0.056438 0.719809 0.097175
0.115209 0.818138 0.094513
0.120591 0.267709 0.190909
0.042860 0.729016 0.073479
0.109368 0.469016 0.202422
0.182541 0.555340 0.009354
0.112219 0.095539 0.179683
0.125567 0.290854 0.188834
0.154478 0.573876 0.048189
0.098532 0.784629 0.137116
0.116734 0.021903 0.182201
0.116013 0.478444 0.127714
0.073555 0.626932 0.119887
0.071601 0.642211 0.119822
0.077773 0.592743 0.131471
0.091463 0.505213 0.142959
0.119445 0.292931 0.185994
0.124178 0.357078 0.185126
0.112025 0.685389 0.153984
0.111522 0.125536 0.184437
0.142195 0.523722 0.057751
0.098722 0.482374 0.158146
0.163273 0.599832 0.025909
0.038938 0.575601 0.177333
0.100343 0.469289 0.194485
0.059319 0.712558 0.100423
0.122024 0.221587 0.189635
0.176503 0.549520 0.016048
0.124030 0.823897 0.084890
0.171017 0.552534 0.065254
0.098095 0.472458 0.157444
0.112954 0.468569 0.138872
0.029243 0.583878 0.049639
0.150909 0.514168 0.198397
0.024647 0.821091 0.041628
0.110495 0.466935 0.149483
0.127955 0.488941 0.092351
0.106644 0.439498 0.169181
0.110915 0.460360 0.156984
0.119473 0.381504 0.184577
0.111452 0.605597 0.137902
0.053740 0.663956 0.082517
0.114812 0.150261 0.180776
0.129619 0.415379 0.203106
0.117185 0.178351 0.188561
0.148560 0.671588 0.153841
0.122876 0.390794 0.183619
0.118286 0.203135 0.182436
0.188225 0.550695 0.195377
0.116842 0.223235 0.185351
0.106197 0.466647 0.196042
0.110807 0.026279 0.180621
0.052778 0.666833 0.082453
0.114029 0.476375 0.131723
0.122221 0.857793 0.093816
0.119183 0.288620 0.186574
0.186470 0.723061 0.174868
0.104206 0.599785 0.140570
0.067861 0.486814 0.174246
0.090617 0.498448 0.149920
0.073154 0.532709 0.192940
0.177012 0.671458 0.009052
0.146568 0.530532 0.052226
0.116695 0.175256 0.181455
0.109639 0.029526 0.182477
0.124279 0.640414 0.146514
0.072352 0.688055 0.116080
0.104966 0.448890 0.167025
0.136948 0.978170 0.093597
0.107481 0.451482 0.160414
0.124998 0.258743 0.188767
0.083083 0.546252 0.139887
0.122597 0.480198 0.110612
0.113435 0.045440 0.186782
0.081370 0.584732 0.128865
0.115420 0.837004 0.098051
0.028893 0.807417 0.046926
0.146912 0.843411 0.056475
0.090265 0.498269 0.148522
0.121028 0.256470 0.191219
0.111805 0.112467 0.180798
0.117157 0.232409 0.185823
0.118957 0.171782 0.181472
0.120271 0.378153 0.184835
0.087075 0.571819 0.138731
0.167223 0.495901 0.194551
0.067988 0.511413 0.083112
0.145438 0.632545 0.021608
0.122190 0.385716 0.186755
0.132757 0.429797 0.203443
0.124168 0.233468 0.186295
0.120174 0.850137 0.097482
0.104185 0.468422 0.157943
0.119908 0.150435 0.183446
0.147803 0.638075 0.107795
0.088182 0.760775 0.117591
0.146862 0.524199 0.198548
0.106102 0.463168 0.160323
0.125612 0.339194 0.181634
0.043759 0.716416 0.072917
0.123064 0.486089 0.099176
0.070584 0.693465 0.116732
0.126127 0.433731 0.205896
0.114510 0.405906 0.180116
0.154809 0.470899 0.198930
0.033569 0.570830 0.053588
0.144546 0.532304 0.196608
0.122274 0.400550 0.193542
0.156872 0.474803 0.196056
0.119693 0.201356 0.182193
0.128830 0.493435 0.087181
0.085003 0.562990 0.138336
0.123351 0.353369 0.186228
0.162947 0.693320 0.157882
0.114503 0.124711 0.179793
0.051389 0.532703 0.066179
0.073225 0.662997 0.117341
0.106700 0.599968 0.143688
0.163604 0.593116 0.029343
0.116687 0.008321 0.182315
0.055113 0.666139 0.081599
0.181834 0.729865 0.004424
0.110896 0.464140 0.147440
0.138940 0.992425 0.091821
0.129987 0.492926 0.083980
0.117474 0.126438 0.186094
0.164549 0.544342 0.030148
0.094746 0.581274 0.140096
0.126297 0.320570 0.187902
0.076774 0.623638 0.122627
0.071827 0.624109 0.121514
0.114718 0.182883 0.185459
0.138111 0.657399 0.150771
0.065585 0.565001 0.218934
0.154411 0.573947 0.048145
0.150879 0.460240 0.197661
0.118926 0.253744 0.184944
0.112716 0.463938 0.146715
0.073118 0.539767 0.207339
0.042833 0.574575 0.178054
0.110681 0.073185 0.179813
0.207735 0.746642 0.188018
0.143211 0.842648 0.057980
0.065493 0.539353 0.191056
0.155809 0.548059 0.045822
0.031377 0.517604 0.138926
0.077291 0.515034 0.083937
0.051249 0.696551 0.079282
0.146814 0.673976 0.153248
0.151570 0.545369 0.046671
0.093146 0.504918 0.148703
0.108565 0.449758 0.159142
0.083760 0.574668 0.132884
0.082074 0.747367 0.072263
0.112945 0.153338 0.184939
0.159189 0.559255 0.055050
0.057217 0.553035 0.184960
0.113672 0.606758 0.137493
0.108744 0.431260 0.173734
0.081747 0.578831 0.129705
0.177907 0.668624 0.011407
0.033763 0.567677 0.053785
0.137455 0.508910 0.071970
0.039244 0.575944 0.178023
0.074712 0.687000 0.119400
0.058534 0.525279 0.071915
0.116663 0.419988 0.173763
0.108002 0.604576 0.142833
0.129579 0.494218 0.084016
0.114763 0.055473 0.186158
0.130154 0.923229 0.092549
0.199210 0.738017 0.182156
0.132743 0.951300 0.092489
0.108990 0.808255 0.103656
0.113409 0.457976 0.157106
0.118682 0.479532 0.123290
0.174349 0.636298 0.015203
0.113279 0.452105 0.160924
0.152239 0.544979 0.044492
0.160152 0.546615 0.063725
0.129640 0.409534 0.200497
0.044757 0.705928 0.077009
0.187870 0.562057 0.196788
0.077253 0.504053 0.090391
0.118859 0.442119 0.203892
0.131620 0.830559 0.074077
0.101798 0.704239 0.157668
0.157966 0.557169 0.039271
0.159225 0.605720 0.024631
0.142306 0.524314 0.057560
0.109592 0.031876 0.182668
0.111060 0.430709 0.175124
0.058287 0.713213 0.100003
0.138280 0.502237 0.081435
0.123677 0.860320 0.096068
0.170189 0.547744 0.024922
0.086690 0.548894 0.135846
0.110598 0.420311 0.171792
0.003069 0.569797 0.106625
0.120163 0.189798 0.182115
0.127831 0.420225 0.207232
0.072390 0.628656 0.119974
0.108747 0.437355 0.167461
0.170728 0.592869 0.025722
0.110220 0.452962 0.163022
0.047918 0.692991 0.079805
0.088630 0.567460 0.136130
0.107334 0.695271 0.155690
0.102512 0.793588 0.103013
0.082838 0.553613 0.139246
0.103488 0.595787 0.139678
0.113577 0.164669 0.184914
0.037151 0.578133 0.175717
0.122282 0.386491 0.181784
0.123408 0.439002 0.203556
0.126922 0.309309 0.186884
0.180693 0.692829 0.008181
0.122947 0.299048 0.182664
0.087345 0.506877 0.199794
0.071733 0.691459 0.116316
0.086471 0.511049 0.198285
0.131777 0.497416 0.085756
0.120400 0.236347 0.190556
0.191787 0.584013 0.196129
0.038739 0.740060 0.070725
0.074122 0.733521 0.074919
0.065999 0.725724 0.074962
0.137469 0.658820 0.151499
0.102566 0.481847 0.115278
0.074304 0.646423 0.118452
0.154959 0.571967 0.046587
0.114645 0.675180 0.153564
0.034039 0.769313 0.063103
0.119299 0.205126 0.189516
0.110779 0.108298 0.183317
0.107497 0.467836 0.197509
0.182386 0.574244 0.057709
0.089368 0.533764 0.142055
0.184162 0.579698 0.055371
0.159178 0.854548 0.036907
0.127917 0.496242 0.079751
0.096360 0.588648 0.140214
0.114901 0.040395 0.186525
0.172035 0.502149 0.196182
0.098833 0.490007 0.151385
0.049993 0.564609 0.183025
0.096702 0.774621 0.107374
0.071443 0.641928 0.121273
0.077150 0.516045 0.083917
0.159152 0.604635 0.025638
0.111910 0.609041 0.137916
0.183777 0.580856 0.057255
0.095444 0.492235 0.154224
0.122825 0.210756 0.188038
0.086277 0.531349 0.143519
0.110767 0.025009 0.186403
0.187247 0.556074 0.005604
0.113821 0.047804 0.179311
0.084698 0.738873 0.113945
0.118712 0.128224 0.183489
0.112178 0.095175 0.179693
0.048678 0.746866 0.091097
0.161809 0.597683 0.028022
0.141212 0.839185 0.060521
0.103417 0.824620 0.145246
0.110233 0.464177 0.153224
0.116498 0.055843 0.181096
0.117612 0.816891 0.092600
0.077209 0.594147 0.131000
0.067096 0.557345 0.214652
0.115057 0.083552 0.185994
0.053419 0.560024 0.184999
0.060515 0.716326 0.077109
0.079033 0.530373 0.203846
0.083385 0.746921 0.073787
0.111292 0.117033 0.184528
0.112427 0.075842 0.186047
0.150695 0.847872 0.047817
0.128194 0.427404 0.205237
0.190337 0.588633 0.195590
0.132992 0.498325 0.076829
0.099775 0.791129 0.104746
0.154794 0.577620 0.043891
0.112943 0.460879 0.150891
0.120551 0.168811 0.186613
0.099298 0.589588 0.142033
0.191282 0.580288 0.195789
0.071920 0.677263 0.117067
0.120549 0.851809 0.094662
0.089539 0.579328 0.137482
0.078114 0.580148 0.130456
0.076404 0.622882 0.122527
0.116160 0.073929 0.184804
0.086429 0.750445 0.114349
0.057470 0.494395 0.168162
0.134617 0.957679 0.093031
0.164732 0.580146 0.032171
0.126872 0.312765 0.187152
0.116231 0.036994 0.180986
0.169983 0.598815 0.024642
0.114378 0.057800 0.179247
0.045949 0.766739 0.087855
0.073725 0.670942 0.116874
0.112428 0.614745 0.145316
0.119781 0.354605 0.185827
0.110710 0.077799 0.180071
0.086109 0.509648 0.200528
0.123249 0.374332 0.183151
0.117034 0.667803 0.151865
0.140653 0.999819 0.092582
0.191556 0.625984 0.047903
0.074942 0.628144 0.123938
0.110532 0.451718 0.164057
0.112710 0.405160 0.175662
0.102222 0.796466 0.140452
0.159920 0.687831 0.157687
0.055528 0.663171 0.084973
0.176492 0.641471 0.016251
0.091317 0.506016 0.142767
0.125865 0.431592 0.207831
0.128810 0.425248 0.207372
0.153974 0.680679 0.157111
0.046674 0.566080 0.182249
0.114749 0.465767 0.145730
0.152772 0.517619 0.075015
0.178977 0.683717 0.009801
0.055409 0.656913 0.083615
0.065790 0.636608 0.098640
0.156509 0.550072 0.042477
0.124731 0.342982 0.180870
0.181134 0.726841 0.003241
0.102499 0.598298 0.141540
0.066332 0.562594 0.215329
0.100615 0.589681 0.141576
0.125850 0.398595 0.190573
0.083723 0.552708 0.134394
0.113604 0.054344 0.179088
0.144200 0.638761 0.021323
0.029657 0.582947 0.049453
0.180647 0.690893 0.008089
0.110687 0.605119 0.141708
0.078579 0.521276 0.083935
0.132708 0.935465 0.090430
0.108899 0.451260 0.157715
0.144763 0.638302 0.110090
0.099876 0.485194 0.114585
0.095046 0.770265 0.130121
0.125966 0.298868 0.183949
0.159606 0.608823 0.026471
0.128467 0.830318 0.076542
0.079962 0.587736 0.132645
0.129428 0.883409 0.092129
0.075347 0.658833 0.118663
0.147516 0.520329 0.197750
0.123534 0.375254 0.182156
0.104896 0.797332 0.102723
0.152344 0.507123 0.195947
0.187868 0.604865 0.052997
0.186363 0.538322 0.193850
0.073668 0.626866 0.116919
0.140111 0.517312 0.061468
0.117120 0.621619 0.142784
0.035849 0.563877 0.055078
0.098104 0.483441 0.157740
0.119544 0.295285 0.186825
0.116481 0.123754 0.180058
0.127269 0.875538 0.091426
0.114274 0.822785 0.100780
0.098914 0.777260 0.133931
0.167062 0.544762 0.030127
0.119460 0.289729 0.185439
0.160205 0.545550 0.064324
0.098503 0.477139 0.159866
0.124022 0.487413 0.094186
0.109505 0.010579 0.184415
0.131521 0.943868 0.091796
0.116840 0.055247 0.183720
0.097661 0.485151 0.150742
0.075846 0.635002 0.121161
0.093112 0.774484 0.107388
0.125099 0.350328 0.185164
0.051721 0.498799 0.162396
0.110193 0.075164 0.184315
0.077317 0.498160 0.092928
0.121511 0.355430 0.186381
0.094696 0.769515 0.108056
0.093607 0.505399 0.148090
0.120120 0.204654 0.189500
0.182866 0.576627 0.058089
0.117128 0.381396 0.181239
0.156768 0.614226 0.023212
0.040938 0.738447 0.071896
0.071439 0.646056 0.121033
0.040076 0.747435 0.069591
0.072093 0.505703 0.083965
0.105418 0.466649 0.198776
0.038817 0.753559 0.067201
0.117732 0.843198 0.096078
0.074118 0.484028 0.177916
0.111956 0.814316 0.097410
0.125383 0.268815 0.186530
0.111567 0.411053 0.175077
0.059817 0.547873 0.187246
0.078976 0.521585 0.198532
0.101742 0.796583 0.141521
0.054042 0.673874 0.082537
0.077226 0.739556 0.073022
0.157060 0.494147 0.198031
0.073116 0.675853 0.116585
0.069127 0.557634 0.215435
0.113440 0.160494 0.183493
0.127975 0.402862 0.199116
0.130039 0.914868 0.092878
0.126401 0.297660 0.187533
0.114409 0.025197 0.179971
0.090371 0.529790 0.141707
0.111610 0.012275 0.187276
0.126428 0.827622 0.082405
0.043805 0.569375 0.178820
0.122835 0.302940 0.189478
0.128063 0.871688 0.093786
0.080613 0.544608 0.072988
0.056905 0.555272 0.187121
0.087278 0.751493 0.112734
0.123734 0.401058 0.196602
0.115867 0.076740 0.185199
0.077368 0.599847 0.125247
0.186172 0.588549 0.053133
0.135199 0.971410 0.092577
0.116712 0.109153 0.185966
0.109161 0.462536 0.152556
0.070875 0.509350 0.084648
0.115287 0.678249 0.152781
0.096559 0.497510 0.150103
0.154151 0.851172 0.044619
0.105828 0.459441 0.167303
0.180723 0.572125 0.057246
0.046240 0.765701 0.087502
0.019460 0.528805 0.126781
0.106020 0.806900 0.102385
0.087252 0.748354 0.110743
0.123899 0.226183 0.187013
0.118570 0.237136 0.184195
0.176978 0.560955 0.061077
0.085051 0.740086 0.113708
0.176104 0.644270 0.015953
0.204443 0.740438 0.183660
0.056403 0.552468 0.187533
0.108984 0.453642 0.168988
0.082259 0.549985 0.138847
0.111242 0.060856 0.179570
0.086578 0.552228 0.138713
0.099293 0.485044 0.200642
0.102740 0.817457 0.144535
0.068876 0.557427 0.215540
0.072423 0.503317 0.086415
0.155169 0.549785 0.045888
0.159167 0.480356 0.197739
0.180224 0.525469 0.193876
0.126558 0.867981 0.092330
0.201376 0.737256 0.183372
0.132362 0.943385 0.092487
0.036627 0.760217 0.068207
0.168244 0.699515 0.161215
0.108907 0.481078 0.122355
0.146307 0.635185 0.021729
0.179007 0.572091 0.059343
0.105077 0.602088 0.143181
0.044174 0.542852 0.058338
0.111873 0.462313 0.199953
0.127495 0.318768 0.185137
0.129436 0.488983 0.090587
0.123465 0.638885 0.146159
0.087030 0.759480 0.109912
0.048505 0.765282 0.087709
0.087981 0.751120 0.111152
0.109635 0.022182 0.184668
0.129406 0.424693 0.203989
0.036496 0.565222 0.052791
0.149097 0.529876 0.052446
0.098601 0.471025 0.160407
0.119470 0.293571 0.186887
0.180138 0.713765 0.170064
0.063264 0.643597 0.092890
0.149598 0.629672 0.021731
0.141787 0.503145 0.079917
0.071879 0.653337 0.118643
0.112655 0.404121 0.177436
0.101948 0.793874 0.140808
0.178162 0.674371 0.010807
0.049347 0.536181 0.061048
0.104822 0.597060 0.143162
0.129297 0.622185 0.123217
0.075335 0.673286 0.118119
0.112768 0.038034 0.179572
0.160468 0.550531 0.061462
0.102277 0.461537 0.165469
0.088959 0.527668 0.139027
0.062084 0.643395 0.091781
0.117780 0.113476 0.181371
0.159554 0.555588 0.056282
0.116719 0.191620 0.182595
0.111796 0.460807 0.150395
0.152429 0.465791 0.199767
0.122989 0.202473 0.186703
0.120242 0.333249 0.185715
0.172629 0.611637 0.021172
0.049153 0.502528 0.156534
0.115847 0.468934 0.138988
0.036574 0.766918 0.065814
0.115195 0.390874 0.181255
0.094033 0.584512 0.137789
0.089669 0.579446 0.138511
0.085082 0.744158 0.113753
0.081803 0.570161 0.136461
0.165298 0.493254 0.195321
0.052796 0.497225 0.163466
0.069624 0.695030 0.112326
0.108423 0.805109 0.103466
0.111467 0.044672 0.179834
0.085795 0.749503 0.110437
0.129005 0.908443 0.092910
0.153226 0.503591 0.197852
0.076419 0.525749 0.197614
0.089071 0.759346 0.115367
0.126406 0.315155 0.183027
0.189344 0.582524 0.195649
0.085046 0.745605 0.110046
0.123772 0.483894 0.103848
0.118496 0.127218 0.184617
0.128707 0.621001 0.125361
0.095885 0.779080 0.108551
0.162178 0.602153 0.025194
0.043643 0.727934 0.072098
0.006928 0.560751 0.112092
0.047793 0.690527 0.077930
0.079803 0.588347 0.127598
0.114749 0.039582 0.186596
0.085640 0.570491 0.138095
0.100673 0.470267 0.156518
0.176825 0.564694 0.062169
0.054744 0.671980 0.082514
0.100573 0.798079 0.139751
0.074136 0.611726 0.126625
0.013884 0.540925 0.120565
0.125430 0.435507 0.205097
0.164467 0.696997 0.158549
0.114892 0.824110 0.099944
0.187311 0.607276 0.052378
0.180777 0.700515 0.007762
0.079744 0.502387 0.090128
0.176302 0.663156 0.010025
0.101138 0.786573 0.106567
0.152432 0.537772 0.048259
0.125970 0.286184 0.187988
0.124264 0.864607 0.095283
0.077372 0.497540 0.092127
0.123024 0.348601 0.186798
0.119964 0.151342 0.184564
0.121061 0.477967 0.116790
0.112059 0.440184 0.171418
0.118028 0.389551 0.185712
0.070807 0.547439 0.209533
0.114308 0.074980 0.178931
0.122511 0.365888 0.185291
0.120312 0.172261 0.182384
0.098909 0.490521 0.198997
0.189078 0.623603 0.049104
0.065399 0.489539 0.171480
0.055132 0.664244 0.081808
0.080695 0.719492 0.113477
0.131651 0.932442 0.092506
0.115272 0.107032 0.186593
0.122040 0.441099 0.202992
0.146802 0.505662 0.079497
0.167973 0.537627 0.068545
0.091219 0.580539 0.139490
0.080821 0.558090 0.135774
0.046235 0.699466 0.078414
0.084917 0.565722 0.138341
0.184979 0.542485 0.195154
0.073620 0.545262 0.208290
0.078311 0.723556 0.113562
0.156879 0.565425 0.050423
0.114268 0.172754 0.186019
0.080584 0.561670 0.136534
0.166346 0.584284 0.030797
0.080291 0.563584 0.133832
0.084796 0.530212 0.141646
0.175201 0.549678 0.020267
0.130700 0.908702 0.090906
0.118812 0.256014 0.185298
0.089418 0.504410 0.148233
0.140221 0.840134 0.062834
0.079619 0.525413 0.202510
0.114093 0.172265 0.184335
0.124800 0.349696 0.185634
0.173266 0.506855 0.196815
0.155018 0.570106 0.050239
0.109985 0.049313 0.184751
0.041213 0.730458 0.070531
0.094795 0.579716 0.138189
0.032446 0.790062 0.054965
0.134288 0.947073 0.091320
0.118374 0.242471 0.184725
0.182252 0.577456 0.055744
0.116357 0.034437 0.185433
0.017868 0.532510 0.126788
0.135914 0.968959 0.090970
0.095625 0.496536 0.152096
0.146961 0.528234 0.056679
0.106722 0.443928 0.166701
0.121972 0.293901 0.189840
0.123320 0.210467 0.185611
0.149073 0.459773 0.197858
0.072254 0.542334 0.208186
0.079773 0.745699 0.073498
0.085933 0.558682 0.136716
0.131097 0.908995 0.092026
0.115396 0.478120 0.126678
0.107274 0.454877 0.162634
0.122141 0.632918 0.143887
0.148774 0.455647 0.198522
0.093918 0.484330 0.109646
0.127934 0.407537 0.197911
0.124029 0.435832 0.203645
0.168124 0.537981 0.068512
0.087416 0.511452 0.144094
0.111121 0.606392 0.144021
0.032096 0.576005 0.052024
0.117048 0.097015 0.185092
0.074802 0.542542 0.207431
0.071397 0.631306 0.121687
0.102598 0.457574 0.165838
0.102181 0.484017 0.118007
0.126007 0.283400 0.187782
0.139079 0.839175 0.064611
0.132539 0.625215 0.120039
0.117018 0.018097 0.183553
0.123527 0.318539 0.181819
0.074030 0.680414 0.116376
0.186741 0.595024 0.052045
0.206091 0.745513 0.187005
0.071646 0.691137 0.114065
0.111949 0.612309 0.145323
0.083550 0.750113 0.072275
0.124108 0.365249 0.183551
0.112357 0.109451 0.186068
0.154269 0.572832 0.048509
0.138706 0.648828 0.019770
0.138361 0.988485 0.093939
0.121805 0.231899 0.183534
0.126926 0.827634 0.082057
0.087402 0.748497 0.110903
0.068387 0.632438 0.114523
0.155754 0.556418 0.042155
0.087082 0.517927 0.141620
0.120408 0.484296 0.104241
0.132708 0.945393 0.092570
0.111574 0.127756 0.184378
0.034013 0.514414 0.140667
0.166740 0.701610 0.160609
0.088569 0.541394 0.139795
0.038305 0.510941 0.147851
0.125277 0.293569 0.183759
0.125931 0.330669 0.187368
0.113579 0.459523 0.152980
0.157672 0.487281 0.197789
0.102895 0.812089 0.143362
0.129533 0.410307 0.200502
0.126502 0.322603 0.187698
0.175547 0.656200 0.011297
0.119646 0.186584 0.188742
0.127661 0.829977 0.077844
0.086724 0.526567 0.144322
0.117964 0.104823 0.182534
0.126833 0.881001 0.093078
0.121895 0.186799 0.186713
0.077142 0.587784 0.128808
0.037614 0.558023 0.055757
0.186408 0.588110 0.055127
0.102751 0.474270 0.160741
0.164128 0.532127 0.072245
0.115536 0.160336 0.187794
0.032313 0.778739 0.059208
0.120974 0.391139 0.182500
0.057110 0.523278 0.071030
0.121939 0.484373 0.105613
0.166223 0.698211 0.159045
0.114421 0.175075 0.183723
0.068129 0.509827 0.083716
0.120350 0.270205 0.184360
0.052792 0.669757 0.081071
0.115363 0.477763 0.129670
0.164554 0.532966 0.068878
0.084599 0.568122 0.134620
0.157518 0.554567 0.040355
0.151557 0.624877 0.021579
0.050357 0.737635 0.093736
0.095157 0.488647 0.149425
0.122829 0.824547 0.086982
0.114895 0.673340 0.152393
0.072883 0.621807 0.121655
0.017131 0.538818 0.123167
0.111250 0.817026 0.102597
0.159923 0.556377 0.057020
0.127293 0.313737 0.185862
0.088229 0.511621 0.146632
0.119369 0.392836 0.189000
0.117633 0.246337 0.188150
0.117640 0.480327 0.112630
0.071077 0.509361 0.082828
0.089767 0.764666 0.110677
0.105999 0.447137 0.170418
0.078320 0.612539 0.125776
0.164495 0.589064 0.029349
0.090697 0.525033 0.140773
0.093867 0.489434 0.154204
0.116948 0.013591 0.183186
0.190371 0.619784 0.050487
0.081950 0.586719 0.130990
0.083052 0.743894 0.111036
0.129053 0.880068 0.093301
0.035354 0.770215 0.065072
0.143256 0.533208 0.198503
0.166097 0.533044 0.070873
0.066273 0.562865 0.215439
0.123547 0.222837 0.187830
0.038423 0.560418 0.053907
0.118824 0.623437 0.143418
0.118117 0.151351 0.187357
0.078589 0.498088 0.090464
0.118330 0.445758 0.205484
0.108240 0.443108 0.166065
0.113829 0.475215 0.130168
0.114250 0.615974 0.142257
0.147449 0.628803 0.021745
0.083205 0.743048 0.110750
0.155158 0.497301 0.197818
0.125445 0.296914 0.188888
0.042992 0.550848 0.057552
0.113071 0.448020 0.162078
0.104410 0.699645 0.156371
0.149162 0.639787 0.107386
0.033935 0.781029 0.060133
0.122341 0.252288 0.184172
0.179362 0.700506 0.005797
0.188147 0.611790 0.051767
0.168007 0.538007 0.069435
0.051229 0.729112 0.093940
0.065264 0.635289 0.102127
0.032990 0.781618 0.060319
0.169782 0.547108 0.023336
0.127443 0.427258 0.204802
0.078883 0.525245 0.197298
0.113247 0.425015 0.169761
0.112997 0.022182 0.187363
0.129583 0.419421 0.205029
0.053330 0.723810 0.095025
0.096943 0.584159 0.140604
0.110795 0.090399 0.184726
0.033143 0.772263 0.062212
0.125564 0.486667 0.089955
0.170339 0.505016 0.195814
0.114356 0.465069 0.146305
0.201003 0.739566 0.182194
0.170786 0.595024 0.028248
0.095638 0.486603 0.109202
0.095454 0.585422 0.141022
0.174586 0.710491 0.166025
0.082022 0.569819 0.136490
0.087635 0.566553 0.137878
0.076561 0.528564 0.196335
0.072018 0.629516 0.113957
0.177638 0.652433 0.011857
0.088776 0.510936 0.147179
0.102767 0.483276 0.199124
0.115629 0.185404 0.183109
0.070852 0.633858 0.115303
0.111281 0.455411 0.154148
0.163630 0.483398 0.195039
0.121995 0.374307 0.178612
0.039993 0.576773 0.178218
0.127373 0.327878 0.185804
0.133048 0.504513 0.071898
0.110961 0.612918 0.142781
0.168979 0.593008 0.026540
0.020066 0.529459 0.128780
0.174154 0.555495 0.064899
0.191602 0.584246 0.196939
0.148727 0.536024 0.051194
0.125776 0.413589 0.201695
0.179009 0.685429 0.009656
0.128402 0.884507 0.093793
0.079020 0.722286 0.112639
0.150537 0.677663 0.153481
0.124291 0.486742 0.096418
0.073232 0.616751 0.123399
0.173847 0.617872 0.022297
0.045969 0.712921 0.075934
0.081233 0.522196 0.198287
0.043210 0.569908 0.179048
0.140584 0.515239 0.062753
0.130351 0.935294 0.091351
0.078895 0.522034 0.081112
0.047107 0.536414 0.061820
0.110281 0.091619 0.182267
0.084973 0.567724 0.134237
0.109089 0.602494 0.140993
0.103090 0.811734 0.143045
0.088287 0.506244 0.198778
0.112319 0.609325 0.144636
0.083279 0.563684 0.132488
0.062786 0.715942 0.076109
0.098442 0.486912 0.156011
0.112494 0.472523 0.137030
0.127291 0.885277 0.091511
0.122567 0.267836 0.191087
0.105704 0.450759 0.169987
0.080641 0.519480 0.196800
0.072971 0.689732 0.115046
0.115242 0.078438 0.179265
0.132290 0.494921 0.084553
0.068529 0.693828 0.114234
0.117467 0.214941 0.188982
0.131183 0.502006 0.077822
0.190438 0.624542 0.050025
0.145336 0.522742 0.059614
0.075142 0.624700 0.123014
0.052539 0.732691 0.092695
0.071618 0.631890 0.122438
0.122163 0.225001 0.183523
0.118878 0.216751 0.189814
0.178112 0.665231 0.011585
0.029077 0.578365 0.050579
0.117894 0.107050 0.184149
0.076808 0.482668 0.179865
0.110830 0.024059 0.180654
0.081367 0.721615 0.113504
0.118339 0.257923 0.186113
0.155730 0.567130 0.051983
0.107542 0.448287 0.164948
0.068712 0.487847 0.173907
0.157149 0.553788 0.040626
0.167163 0.497439 0.195065
0.035199 0.580797 0.174565
0.101825 0.823576 0.145323
0.122113 0.196590 0.183469
0.027390 0.819026 0.043029
0.093143 0.484810 0.107745
0.081195 0.547627 0.072585
0.121905 0.385804 0.178601
0.001181 0.571725 0.106734
0.039608 0.509975 0.149140
0.022271 0.524069 0.129074
0.172900 0.610708 0.021580
0.079009 0.532555 0.079582
0.100492 0.786742 0.107206
0.191444 0.640440 0.046964
0.114995 0.834181 0.097643
0.111030 0.687272 0.154095
0.103355 0.470082 0.162792
0.149911 0.534871 0.051863
0.158678 0.852140 0.041392
0.101962 0.468876 0.156977
0.119113 0.847594 0.095364
0.050406 0.678112 0.081615
0.151865 0.510950 0.198347
0.135616 0.973432 0.091671
0.074235 0.675270 0.116767
0.118007 0.228927 0.189464
0.123328 0.210695 0.186589
0.072305 0.680183 0.116605
0.162725 0.539039 0.065869
0.065704 0.638739 0.098800
0.077132 0.527295 0.196957
0.068331 0.488122 0.173626
0.002127 0.571494 0.106413
0.076433 0.596620 0.126559
0.111932 0.420840 0.176973
0.112118 0.605313 0.140146
0.112328 0.610040 0.142136
0.068948 0.537782 0.193953
0.114496 0.123775 0.179773
0.139981 0.664376 0.151738
0.087820 0.509287 0.145872
0.126325 0.876860 0.092704
0.129525 0.419658 0.205490
0.132146 0.504845 0.073896
0.158530 0.610611 0.026342
0.073811 0.689344 0.115803
0.119143 0.353426 0.180840
0.086972 0.756433 0.109009
0.184187 0.535280 0.195754
0.127164 0.869493 0.092254
0.125417 0.335107 0.181436
0.116886 0.071113 0.183164
0.117055 0.179917 0.188588
0.141482 0.640198 0.020664
0.180643 0.569904 0.059430
0.126835 0.318161 0.183170
0.027197 0.806427 0.048899
0.068292 0.636773 0.106846
0.112886 0.438444 0.171894
0.091785 0.581627 0.139480
0.035873 0.562297 0.053872
0.084087 0.558825 0.133382
0.110635 0.053110 0.185538
0.100840 0.479095 0.153727
0.030256 0.801213 0.051750
0.115009 0.063348 0.179316
0.052592 0.732114 0.094794
0.034226 0.765961 0.065401
0.112052 0.605701 0.138080
0.114953 0.815361 0.096775
0.145977 0.527978 0.057289
0.064434 0.565944 0.217303
0.091965 0.770770 0.109564
0.096224 0.490603 0.200384
0.134193 0.502178 0.073132
0.162120 0.542546 0.035032
0.171171 0.606227 0.022562
0.127714 0.324230 0.184949
0.175878 0.657943 0.011881
0.114896 0.468863 0.145721
0.078373 0.520026 0.081731
0.110139 0.603668 0.142161
0.154001 0.542788 0.045493
0.181805 0.573745 0.057116
0.159659 0.603272 0.026167
0.114052 0.099642 0.186565
0.081386 0.521338 0.199178
0.075591 0.615600 0.122073
0.126169 0.490213 0.082983
0.117406 0.836030 0.096886
0.098472 0.785590 0.104502
0.175715 0.710992 0.168025
0.180617 0.723615 0.004254
0.085636 0.750383 0.073710
0.122090 0.258205 0.184224
0.127700 0.323898 0.185208
0.027952 0.816235 0.044350
0.160729 0.853949 0.036563
0.205403 0.742961 0.184150
0.121550 0.856884 0.094435
0.110660 0.447593 0.170657
0.026411 0.822028 0.043012
0.119877 0.283310 0.189207
0.177858 0.652430 0.012177
0.083599 0.747456 0.073979
0.084044 0.565658 0.132685
0.124476 0.488821 0.091696
0.124219 0.488449 0.092471
0.173265 0.551489 0.065435
0.051607 0.700638 0.078506
0.035474 0.758761 0.066480
0.051077 0.747263 0.090994
0.113502 0.008229 0.187710
0.115121 0.426232 0.171209
0.121087 0.305564 0.188571
0.089923 0.525932 0.139818
0.195986 0.732882 0.178302
0.155503 0.554427 0.043620
0.134240 0.495576 0.084167
0.082725 0.545596 0.139124
0.119775 0.191615 0.182014
0.039001 0.738495 0.070897
0.118744 0.207812 0.189536
0.130547 0.497231 0.081918
0.116822 0.474723 0.131829
0.116364 0.420998 0.174822
0.113890 0.402233 0.179945
0.023077 0.525645 0.130324
0.115448 0.025591 0.180483
0.083728 0.564180 0.132546
0.112115 0.039066 0.186818
0.144219 0.670301 0.152227
0.092598 0.772966 0.108763
0.074098 0.626233 0.124601
0.149209 0.532043 0.048221
0.030580 0.789617 0.056580
0.116203 0.419868 0.175932
0.180269 0.523313 0.196305
0.148351 0.675333 0.155348
0.176286 0.663143 0.011116
0.169515 0.545264 0.024583
0.169756 0.701831 0.161079
0.169815 0.602647 0.024646
0.080968 0.719432 0.113998
0.116751 0.202440 0.188225
0.027401 0.584799 0.050024
0.080064 0.730302 0.112286
0.129522 0.495639 0.083309
0.126790 0.882576 0.092720
0.119903 0.300730 0.187206
0.110325 0.092194 0.183396
0.118745 0.255999 0.189984
0.083667 0.737972 0.110891
0.143860 0.503197 0.081618
0.086192 0.533647 0.143184
0.041547 0.723828 0.073617
0.085687 0.751335 0.114429
0.110821 0.465183 0.199724
0.162022 0.563871 0.038669
0.071516 0.634725 0.112780
0.112564 0.471946 0.140508
0.097816 0.482039 0.151850
0.171577 0.595003 0.027782
0.110997 0.051032 0.179950
0.130741 0.491158 0.087254
0.074668 0.636847 0.123081
0.111561 0.053544 0.186125
0.082734 0.564626 0.135641
0.083946 0.748346 0.074312
0.098561 0.489920 0.150747
0.093986 0.491278 0.148541
0.118758 0.151660 0.181439
0.097732 0.775945 0.131287
0.099448 0.482624 0.116397
0.155245 0.619293 0.023851
0.121382 0.381982 0.184047
0.120465 0.379827 0.185000
0.168929 0.590399 0.026884
0.110319 0.082546 0.184286
0.049294 0.562922 0.183852
0.110893 0.102714 0.184526
0.046413 0.772132 0.087145
0.131878 0.920944 0.091751
0.079124 0.503447 0.088847
0.141976 0.521639 0.058229
0.110214 0.023314 0.185792
0.158881 0.559136 0.054342
0.085190 0.526926 0.141497
0.138238 0.509523 0.067481
0.040786 0.551818 0.058014
0.124211 0.435383 0.207287
0.187711 0.611860 0.051313
0.157356 0.557391 0.056708
0.170486 0.543814 0.067224
0.038467 0.557899 0.056595
0.187709 0.567794 0.195755
0.135857 0.958804 0.091515
0.081257 0.737398 0.112978
0.092192 0.517469 0.143792
0.077735 0.588023 0.132022
0.051265 0.732905 0.094657
0.043790 0.710611 0.075599
0.141423 0.642559 0.020928
0.138013 0.630329 0.114897
0.100710 0.787669 0.104060
0.110160 0.019021 0.185829
0.110772 0.606189 0.141933
0.116429 0.041996 0.185030
0.110410 0.039550 0.180804
0.185377 0.589300 0.053012
0.118338 0.845012 0.098101
0.140232 0.632958 0.115469
0.109894 0.420450 0.174366
0.057492 0.712360 0.076967
0.105531 0.474840 0.199413
0.074112 0.683316 0.120112
0.188810 0.558688 0.194808
0.123378 0.618117 0.127521
0.075689 0.650398 0.120760
0.080124 0.569489 0.131933
0.132994 0.834235 0.072652
0.186697 0.721864 0.171972
0.046891 0.697309 0.079011
0.187039 0.561572 0.195590
0.111829 0.053858 0.179401
0.187343 0.607712 0.052305
0.065665 0.513440 0.077994
0.164598 0.698496 0.159087
0.154315 0.517164 0.074225
0.109328 0.686789 0.155791
0.044447 0.715304 0.073055
0.120323 0.209397 0.189651
0.116716 0.019383 0.182189
0.079505 0.523664 0.195976
0.113629 0.681600 0.154524
0.092278 0.503496 0.200837
0.129830 0.892983 0.091434
0.153921 0.544417 0.044456
0.094006 0.579912 0.139723
0.112855 0.104480 0.179657
0.182997 0.531081 0.196173
0.060935 0.644323 0.090926
0.089685 0.533690 0.139807
0.109501 0.438818 0.166787
0.135010 0.626570 0.119266
0.117189 0.836412 0.099584
0.086737 0.516151 0.144125
0.049911 0.692185 0.079441
0.066356 0.561139 0.214923
0.123262 0.224008 0.184592
0.111845 0.474484 0.128506
0.085494 0.552905 0.139464
0.121213 0.340367 0.180896
0.147813 0.845656 0.054185
0.074355 0.626783 0.121045
0.092004 0.576646 0.138929
0.184329 0.585730 0.054025
0.157627 0.557524 0.039230
0.096322 0.477763 0.156488
0.156082 0.549699 0.042457
0.070621 0.632606 0.116350
0.123684 0.278215 0.190385
0.071280 0.634327 0.114239
0.079332 0.574936 0.130905
0.137503 0.649006 0.019867
0.112810 0.442295 0.167959
0.168452 0.699954 0.161797
0.126496 0.486252 0.091917
0.125461 0.863380 0.093149
0.137221 0.514755 0.066738
0.061670 0.643187 0.091937
0.075392 0.684517 0.118148
0.124406 0.359109 0.184464
0.110669 0.034269 0.180541
0.174788 0.515091 0.195326
0.123384 0.212210 0.186415
0.174546 0.642364 0.014143
0.141935 0.504444 0.083093
0.113419 0.409993 0.173048
0.114975 0.461396 0.201678
0.128507 0.907398 0.092160
0.116363 0.045913 0.181021
0.138848 0.997114 0.093761
0.118294 0.627557 0.146045
0.127902 0.487187 0.091390
0.120511 0.299478 0.188424
0.103183 0.813867 0.143101
0.165087 0.695202 0.159548
0.012441 0.548684 0.118385
0.138923 0.662621 0.150007
0.116522 0.384417 0.182972
0.002482 0.568231 0.105872
0.171237 0.705305 0.162292
0.120290 0.438401 0.204464
0.153844 0.514809 0.075578
0.036944 0.565328 0.054375
0.073528 0.630802 0.119276
0.079744 0.526612 0.080701
0.052841 0.667376 0.083571
0.111787 0.459707 0.157452
0.115148 0.003668 0.180505
0.112801 0.149520 0.185268
0.043389 0.726890 0.071508
0.087920 0.750942 0.112346
0.063068 0.637769 0.097309
0.031186 0.785236 0.056467
0.132994 0.493483 0.088029
0.101144 0.814941 0.142307
0.049960 0.697062 0.078991
0.071875 0.693933 0.116026
0.051731 0.741027 0.093068
0.119646 0.841082 0.097079
0.148847 0.845219 0.050698
0.186917 0.723882 0.174899
0.148038 0.459491 0.199771
0.110091 0.040140 0.181231
0.117469 0.367066 0.183441
0.141738 0.661931 0.150935
0.120452 0.337515 0.181930
0.162991 0.532906 0.070976
0.125449 0.282469 0.188994
0.162108 0.570993 0.034109
0.181702 0.552264 0.011770
0.122677 0.337975 0.180635
0.192808 0.641703 0.045316
0.200769 0.736122 0.182075
0.115011 0.029632 0.180093
0.182379 0.580966 0.055954
0.052525 0.669652 0.081460
0.113758 0.459163 0.155335
0.115892 0.013717 0.181083
0.162429 0.531636 0.071925
0.086409 0.757810 0.110828
0.127534 0.427493 0.204868
0.079992 0.567610 0.132694
0.052253 0.732979 0.094760
0.161351 0.479517 0.196401
0.141254 0.666392 0.151577
0.114259 0.065265 0.186054
0.188021 0.556724 0.004661
0.116555 0.079475 0.180426
0.082756 0.571696 0.131141
0.122558 0.228961 0.183884
0.129125 0.878780 0.092405
0.112394 0.614963 0.142494
0.111159 0.058039 0.179687
0.089011 0.505107 0.198747
0.123230 0.399442 0.189257
0.144600 0.670916 0.152512
0.184812 0.539777 0.194233
0.126040 0.318241 0.182448
0.089917 0.514544 0.146921
0.159445 0.480257 0.195641
0.192602 0.727022 0.177311
0.076313 0.536751 0.204409
0.072072 0.678657 0.120084
0.101205 0.796975 0.141785
0.078465 0.577053 0.133315
0.002397 0.565907 0.107738
0.054854 0.664672 0.081752
0.076616 0.592213 0.127849
0.191349 0.632732 0.048742
0.103040 0.798155 0.105228
0.087676 0.760209 0.111227
0.101485 0.791073 0.140719
0.139363 0.994239 0.094180
0.090743 0.507048 0.148355
0.112728 0.826997 0.100139
0.167521 0.543572 0.027577
0.141087 0.665717 0.152420
0.119557 0.168834 0.181780
0.027366 0.805519 0.048183
0.110355 0.451955 0.168410
0.109577 0.023645 0.184343
0.114462 0.166799 0.182460
0.175468 0.630529 0.018797
0.112906 0.151104 0.182889
0.180033 0.686239 0.009171
0.156482 0.473986 0.196132
0.081986 0.561588 0.132926
0.095810 0.484267 0.108170
0.074111 0.663563 0.117380
0.040597 0.735295 0.072597
0.121914 0.233250 0.190226
0.123879 0.331925 0.188061
0.116181 0.017809 0.186072
0.109724 0.046028 0.181812
0.119131 0.615635 0.132425
0.117905 0.160745 0.180977
0.121340 0.258966 0.184256
0.030108 0.518342 0.138332
0.128741 0.418944 0.202897
0.120769 0.394402 0.190361
0.191446 0.727499 0.177879
0.117342 0.624555 0.143233
0.110306 0.817130 0.102225
0.156939 0.475938 0.197479
0.117046 0.105975 0.180561
0.117365 0.086098 0.183406
0.142599 0.450616 0.201022
0.116163 0.001963 0.185975
0.126853 0.621659 0.127060
0.000694 0.570182 0.106882
0.145361 0.522231 0.059137
0.120347 0.354028 0.186165
0.175817 0.645703 0.012903
0.084978 0.750273 0.109914
0.147719 0.529484 0.051507
0.086993 0.751480 0.112869
0.132246 0.949725 0.091842
0.132486 0.942887 0.090038
0.128993 0.876745 0.092113
0.072937 0.653759 0.117948
0.122066 0.442456 0.205757
0.120020 0.266472 0.190666
0.093225 0.491572 0.148856
0.116557 0.111236 0.180068
0.104744 0.466634 0.198104
0.055247 0.723852 0.096848
0.084086 0.738255 0.110924
0.123364 0.483018 0.106307
